ply
format ascii 1.0
comment PCL generated
element vertex 1190
property float x
property float y
property float z
property uchar red
property uchar green
property uchar blue
element camera 0
property float view_px
property float view_py
property float view_pz
property float x_axisx
property float x_axisy
property float x_axisz
property float y_axisx
property float y_axisy
property float y_axisz
property float z_axisx
property float z_axisy
property float z_axisz
property float focal
property float scalex
property float scaley
property float centerx
property float centery
property int viewportx
property int viewporty
property float k1
property float k2
end_header
2.000001 0.39517891 -2.7 189 158 103
2.000001 0.38968131 -2.5999999 183 156 100
2.000001 0.40912569 -2.5 175 152 121
2.000001 0.41523799 -2.4000001 106 109 112
2.000001 0.38919789 -2.3 186 155 96
2.000001 0.4064225 -2.2 183 154 94
2.000001 0.39975289 -2.0999999 192 158 100
2.000001 0.39415771 -2 189 156 100
2.000001 0.4150762 -1.9 186 155 96
2.000001 0.4169389 -1.8 189 158 100
2.000001 0.40641251 -1.7 189 156 99
2.000001 0.4170709 -1.6 189 158 99
2.000001 0.4331553 -1.5 192 158 100
2.000001 0.42540851 -1.4 189 158 99
2.000001 0.41691059 -1.3 192 158 100
2.000001 0.4153479 -1.2 189 158 100
2.000001 0.43883869 -1.1 192 158 100
2.000001 0.43217269 -0.99999982 189 158 99
2 0.42525491 -0.89999968 189 158 99
2.000001 0.42702901 -0.79999971 189 158 99
2.000001 0.43972579 -0.69999957 189 158 100
2 0.43185309 -0.59999973 192 158 100
2 0.42715001 -0.49999961 189 158 99
2 0.4374305 -0.39999959 189 158 100
2 0.4356896 -0.29999959 189 155 99
2 0.4189195 -0.1999996 192 158 100
2 0.42697239 -0.099999517 189 158 99
2 0.4509812 5.2154058e-07 189 158 99
2 0.44476911 0.1000006 192 160 100
2 0.45811379 0.2000006 189 158 99
2 0.42937681 0.30000061 189 158 100
2 0.45381621 0.4000006 189 158 100
2.000001 0.44197929 0.50000072 189 158 100
2 0.43996549 0.60000068 189 158 100
2 0.45446691 0.70000058 189 156 99
2 0.44488299 0.80000073 189 158 99
2 0.45791939 0.90000081 189 158 99
2 0.44944349 1.000001 189 158 100
2 0.45678201 1.100001 192 160 100
2 0.4549576 1.200001 192 158 100
2 0.45408469 1.300001 189 158 100
2 0.46160811 1.400001 189 156 99
2 0.45905039 1.500001 192 156 100
2 0.4519752 1.600001 192 158 100
2 0.4491767 1.700001 189 158 100
2 0.443654 1.800001 189 158 99
2 0.4290629 1.900001 189 158 99
2 0.43733341 2.000001 189 154 99
2 0.43698981 2.1000011 195 160 103
2 0.42608729 2.200001 192 160 100
2 0.41306189 2.3000009 195 158 103
2 0.40797791 2.400001 195 160 103
2 0.39835721 2.500001 192 158 100
2 0.40179461 2.6000011 189 156 99
2 0.37954879 2.700001 189 158 97
2 0.37184271 2.8000009 189 158 99
2 0.36072549 2.900002 192 158 100
2 0.3662301 3.0000019 189 158 99
2 0.3625139 3.1000021 192 160 100
2 0.3445788 3.200001 189 158 99
2 0.32984909 3.3000021 189 158 99
2 0.32132 3.400002 192 158 99
2 0.32457939 3.5000019 189 158 99
2 0.31124669 3.6000011 189 156 99
2 0.3075166 3.700002 189 156 99
2 0.30496651 3.8000009 192 158 100
2 0.29913139 3.900001 189 158 99
2 0.29150951 4.000001 189 158 99
2 0.2866728 4.1000009 192 156 100
2 0.28420761 4.2000022 192 158 100
1.999999 0.2815305 4.3000021 192 160 100
1.999999 0.27896759 4.400002 192 158 100
1.999999 0.2766538 4.500001 189 158 100
1.999999 0.27694711 4.6000018 189 154 99
1.999999 0.27288499 4.7000022 192 158 100
1.999999 0.26856709 4.8000021 189 158 99
1.999999 0.261868 4.900002 192 158 100
1.999999 0.259859 5.000001 192 158 100
1.999999 0.25084379 5.1000018 189 158 99
1.999999 0.25408241 5.2000022 189 158 99
1.999999 0.2526122 5.3000021 189 155 99
1.999999 0.2502805 5.400002 189 158 99
1.999999 0.24445561 5.5000019 195 160 103
1.999999 0.2320278 5.6000018 189 158 99
1.999999 0.2263841 5.7000022 192 158 100
1.999999 0.2377522 5.8000021 189 158 99
1.999999 0.23706891 5.900002 192 156 100
1.999999 0.2285971 6.0000019 189 155 99
1.999999 0.2251354 6.1000018 189 158 99
1.999999 0.2325155 6.2000022 192 158 100
1.999999 0.2343979 6.3000021 189 156 99
1.999999 0.22469179 6.400003 193 161 103
1.999999 0.2241001 6.5000019 193 161 103
1.999999 0.2251648 6.6000018 193 161 103
1.999999 0.23845071 6.7000022 193 161 103
2.1000021 0.3264429 -7.1000009 189 158 99
2.1000021 0.31831461 -7.000001 192 158 100
2.1000021 0.3103838 -6.900002 189 154 99
2.1000021 0.32239109 -6.8000011 189 158 99
2.1000021 0.3130233 -6.7000008 189 158 99
2.1000021 0.323172 -6.6000009 189 154 99
2.1000021 0.30756819 -6.500001 189 154 99
2.1000021 0.29925811 -6.400002 192 158 100
2.1000021 0.30120981 -6.3000011 189 158 99
2.1000021 0.29619551 -6.2000008 192 158 100
2.1000021 0.29358491 -6.1000009 195 160 103
2.1000021 0.27150819 -6.000001 189 156 99
2.1000021 0.31064159 -5.900001 183 152 93
2.1000021 0.29794329 -5.8000011 189 158 99
2.1000021 0.30796069 -5.7000008 195 158 103
2.1000021 0.3001225 -5.6000009 192 160 100
2.1000021 0.32245481 -5.5 189 158 99
2.1000021 0.3060956 -5.400001 192 158 100
2.1000021 0.32847321 -5.3000011 189 158 99
2.1000021 0.32521531 -5.2000008 189 158 99
2.1000021 0.3211256 -5.1000009 186 154 94
2.1000021 0.33475119 -5.000001 186 155 96
2.1000021 0.32813239 -4.900001 189 154 99
2.1000021 0.3299343 -4.8000011 192 156 100
2.1000021 0.33085731 -4.6999998 195 160 103
2.1000021 0.317702 -4.5999999 189 156 100
2.1000021 0.33355409 -4.5 192 158 100
2.1000021 0.34357989 -4.400001 192 156 100
2.1000021 0.33138409 -4.3000002 189 158 99
2.1000021 0.34033489 -4.1999998 189 158 99
2.1000021 0.34197259 -4.0999999 189 158 99
2.1000021 0.34871411 -4 189 158 99
2.1000021 0.34056789 -3.9000001 189 158 99
2.1000021 0.34730119 -3.8000009 189 158 99
2.1000021 0.35492381 -3.700001 189 158 99
2.1000021 0.34729019 -3.5999999 189 158 99
2.1000021 0.35957369 -3.5 189 158 99
2.1000021 0.35971999 -3.400001 189 158 99
2.1000021 0.36926731 -3.3 192 158 100
2.1000011 0.38674521 -3.200001 134 124 115
2.1000011 0.39259371 -3.1000011 131 135 139
2.1000011 0.40018821 -3 139 137 134
2.1000011 0.40023991 -2.9000001 115 116 115
2.1000011 0.406149 -2.8 137 138 137
2.1000011 0.390861 -2.7 189 158 99
2.1000011 0.39427951 -2.5999999 186 158 103
2.1000011 0.4005003 -2.5 192 158 100
2.1000011 0.3976225 -2.4000001 189 161 99
2.1000011 0.40569231 -2.3 183 156 100
2.1000011 0.4040626 -2.2 192 158 100
2.1000011 0.41478199 -2.0999999 189 158 99
2.1000011 0.41003871 -2 192 158 100
2.1000011 0.40748891 -1.9 189 158 99
2.1000011 0.41825131 -1.8 189 158 100
2.1000011 0.4263514 -1.7 192 158 100
2.1000011 0.42530069 -1.6 192 158 100
2.1000011 0.43779469 -1.5 189 158 99
2.1000011 0.44208771 -1.4 189 158 99
2.1000011 0.43312311 -1.3 186 158 96
2.1000011 0.43035039 -1.2 186 156 99
2.1000011 0.43068579 -1.1 189 158 99
2.1000011 0.42265269 -0.99999982 189 158 99
2.1000011 0.43640199 -0.89999968 189 158 100
2.1000011 0.42895001 -0.79999971 186 158 103
2.1000011 0.43335149 -0.69999957 189 158 99
2.1000011 0.42565131 -0.59999961 189 158 99
2.1000011 0.43677971 -0.49999961 189 161 106
2.1000011 0.45675051 -0.39999959 137 136 139
2.1000011 0.4408536 -0.29999959 192 158 100
2.1000011 0.452032 -0.1999995 195 163 103
2.1000011 0.4483864 -0.099999487 189 158 99
2.1000011 0.4874686 5.6624413e-07 189 158 99
2.1000011 0.4539873 0.30000061 189 158 99
2.1000011 0.4575583 0.40000069 189 158 99
2.1000011 0.4460274 0.50000072 192 158 100
2.1000011 0.4513711 0.60000068 189 158 99
2.1000011 0.4578346 0.7000007 186 156 94
2.0999999 0.46114001 0.80000079 189 158 100
2.0999999 0.46022981 0.90000081 189 158 99
2.0999999 0.4590784 1.000001 195 163 103
2.0999999 0.45606619 1.100001 189 158 99
2.0999999 0.46970889 1.200001 192 158 100
2.0999999 0.4632192 1.300001 192 160 100
2.0999999 0.45336151 1.400001 189 156 99
2.0999999 0.4475219 1.500001 189 156 99
2.0999999 0.45531371 1.600001 189 158 99
2.0999999 0.4400394 1.700001 189 158 99
2.0999999 0.4451887 1.800001 192 158 100
2.0999999 0.43260539 1.900001 189 158 99
2.0999999 0.43660131 2.000001 189 158 100
2.0999999 0.4422355 2.1000011 192 158 100
2.0999999 0.4246096 2.200001 195 160 103
2.0999999 0.41147381 2.3000021 189 158 99
2.0999999 0.4076004 2.400001 189 156 100
2.0999999 0.39936891 2.500001 192 160 100
2.0999999 0.39288521 2.6000011 195 160 103
2.0999999 0.38054851 2.700001 192 158 100
2.0999999 0.36947939 2.8000009 189 158 99
2.0999999 0.37720069 2.900002 189 155 99
2.0999999 0.3731091 3.000001 189 156 99
2.0999999 0.349457 3.1000021 189 158 99
2.0999999 0.34155411 3.200001 189 158 99
2.0999999 0.33286509 3.3000021 189 158 99
2.0999999 0.32261419 3.400002 189 158 99
2.0999999 0.31672239 3.5000019 189 158 99
2.0999999 0.32679829 3.6000011 189 158 99
2.0999999 0.30951291 3.700002 189 158 99
2.0999999 0.3033427 3.8000021 180 154 99
2.0999999 0.29827321 3.900002 189 158 100
2.0999999 0.29478911 4.0000019 192 158 100
2.0999999 0.28429511 4.1000018 192 158 100
2.0999999 0.2830002 4.2000031 189 158 100
2.0999999 0.27743271 4.3000031 189 158 99
2.0999999 0.2745041 4.400002 189 156 99
2.0999999 0.2685838 4.5000019 192 160 100
2.0999999 0.26976019 4.6000018 186 155 96
2.0999999 0.27141371 4.7000031 189 158 99
2.099999 0.27153751 4.8000031 183 154 94
2.099999 0.26773441 4.900002 189 158 100
2.099999 0.26033801 5.0000019 189 154 99
2.099999 0.26276919 5.1000018 189 158 99
2.0999999 0.25174439 5.2000031 192 158 100
2.0999999 0.25097051 5.3000021 192 158 100
2.099999 0.2463101 5.400002 192 158 100
2.0999999 0.2438775 5.5000019 189 158 100
2.0999999 0.2324533 5.6000028 189 155 99
2.099999 0.2254657 5.7000031 189 158 99
2.099999 0.2329388 5.8000021 192 158 100
2.099999 0.22854491 5.900002 189 154 99
2.099999 0.23362871 6.0000029 189 158 99
2.099999 0.2280546 6.1000028 183 156 100
2.099999 0.23395079 6.2000031 189 158 99
2.099999 0.2246301 6.3000031 189 155 99
2.099999 0.2209672 6.400002 195 161 103
2.099999 0.220498 6.5000029 193 160 103
2.099999 0.22137509 6.6000028 193 160 103
2.099999 0.22723749 6.7000031 193 160 103
2.200002 0.32773039 -7.1000009 189 156 100
2.200002 0.3279227 -7.000001 189 158 99
2.200002 0.3239482 -6.900002 189 154 99
2.200002 0.31663099 -6.8000011 192 160 100
2.200002 0.31075969 -6.7000008 183 152 93
2.200002 0.3118827 -6.6000009 183 152 93
2.200002 0.30048019 -6.500001 192 158 100
2.200002 0.3022739 -6.400002 186 156 99
2.200002 0.30579919 -6.3000011 195 160 103
2.200002 0.30783981 -6.2000008 189 158 99
2.200002 0.3028402 -6.1000009 192 158 100
2.200002 0.30235821 -6.000001 189 158 100
2.200002 0.30609339 -5.900001 192 158 100
2.200002 0.30456841 -5.8000011 189 156 99
2.200002 0.29816851 -5.7000008 195 163 103
2.200002 0.30862659 -5.6000009 189 158 99
2.200002 0.30442849 -5.5 192 158 100
2.200002 0.31440321 -5.400001 189 158 99
2.200002 0.31914139 -5.3000011 183 154 94
2.200002 0.31553921 -5.2000008 192 158 100
2.200001 0.3327297 -5.1000009 189 158 99
2.200002 0.32710651 -5.000001 189 158 100
2.200002 0.3270373 -4.900001 189 154 99
2.200002 0.33970901 -4.8000011 189 161 106
2.200002 0.3292768 -4.6999998 195 158 103
2.200002 0.329671 -4.5999999 189 161 106
2.200002 0.31875241 -4.5 192 160 100
2.200001 0.3435913 -4.4000001 192 158 100
2.200002 0.31467459 -4.3000011 189 158 99
2.200001 0.33626911 -4.1999998 189 156 100
2.200001 0.34167969 -4.0999999 189 161 106
2.200001 0.34278819 -4 189 158 99
2.200001 0.3357746 -3.900001 189 158 99
2.200001 0.3445572 -3.8000009 192 160 100
2.200001 0.35735679 -3.700001 189 158 97
2.200001 0.35677841 -3.5999999 189 158 100
2.200001 0.34935349 -3.5 195 160 103
2.200001 0.35632119 -3.400001 170 147 109
2.200001 0.363911 -3.3 186 155 96
2.200001 0.37349039 -3.200001 189 158 99
2.200001 0.40186709 -3.0999999 128 132 131
2.200001 0.40399069 -3 134 129 125
2.200001 0.39019889 -2.9000001 192 156 100
2.200001 0.39209139 -2.8 192 158 100
2.200001 0.39722151 -2.7 189 161 99
2.200001 0.40579739 -2.5999999 192 156 100
2.200001 0.40032059 -2.5 189 158 99
2.200001 0.40836239 -2.4000001 189 158 99
2.200001 0.37652421 -2.3 192 158 100
2.200001 0.4231832 -2.2 189 158 99
2.200001 0.42392519 -2.0999999 192 156 100
2.200001 0.4156341 -2 189 156 99
2.200001 0.40572751 -1.9 189 158 99
2.200001 0.41723979 -1.8 189 154 99
2.200001 0.42235079 -1.7 192 156 100
2.200001 0.4195928 -1.6 186 158 103
2.200001 0.42297649 -1.5 189 154 99
2.200001 0.4315289 -1.4 189 154 99
2.200001 0.43539241 -1.3 183 158 103
2.200001 0.44711471 -1.2 122 116 115
2.200001 0.43433249 -1.1 189 158 99
2.200001 0.436894 -0.99999988 195 158 103
2.200001 0.43511161 -0.89999968 189 158 99
2.200001 0.44508609 -0.79999971 134 135 128
2.200001 0.43590459 -0.69999957 195 158 103
2.200001 0.43622789 -0.59999961 189 158 99
2.2 0.4448635 -0.49999949 137 141 137
2.200001 0.4542557 -0.3999995 115 116 115
2.200001 0.4305099 -0.29999951 189 155 99
2.200001 0.44925091 -0.1999995 192 160 100
2.200001 0.455762 -0.099999472 189 158 99
2.200001 0.44286731 0.30000061 189 158 100
2.200001 0.4557845 0.4000006 170 147 115
2.200001 0.45491251 0.50000072 183 155 100
2.200001 0.44843251 0.60000068 189 156 100
2.2 0.45091191 0.90000087 192 158 100
2.2 0.45222351 1.000001 189 158 99
2.2 0.45543861 1.100001 189 154 99
2.2 0.45071369 1.200001 189 158 99
2.2 0.4694961 1.300001 180 154 99
2.2 0.4545435 1.400001 189 155 99
2.2 0.44769979 1.500001 192 158 100
2.2 0.46018651 1.600001 192 160 100
2.2 0.43943521 1.700001 192 160 100
2.2 0.44222009 1.800001 192 158 100
2.2 0.4288879 1.900001 189 158 99
2.2 0.4313311 2.000001 192 160 100
2.2 0.43167669 2.1000011 192 160 100
2.2 0.42457581 2.200001 189 158 99
2.2 0.41395509 2.3000009 189 158 100
2.2 0.4086329 2.400001 189 158 99
2.2 0.409619 2.500001 192 160 100
2.2 0.39057091 2.6000011 189 156 100
2.2 0.37991339 2.700002 189 158 99
2.2 0.37355 2.8000009 189 158 100
2.2 0.3696267 2.900002 189 158 99
2.2 0.36123109 3.000001 189 158 99
2.2 0.35024211 3.1000021 189 158 99
2.2 0.34869641 3.200002 192 158 99
2.2 0.33597961 3.3000021 195 158 103
2.2 0.32529789 3.400002 192 160 100
2.2 0.32327989 3.500001 189 156 99
2.2 0.31977609 3.6000011 192 160 100
2.2 0.31287619 3.700002 189 158 97
2.2 0.30709901 3.8000021 189 158 100
2.2 0.29957229 3.900002 189 158 100
2.2 0.29221931 4.0000019 192 158 100
2.2 0.27901581 4.1000018 192 158 100
2.2 0.27775621 4.2000031 192 156 100
2.2 0.2741617 4.3000031 192 158 100
2.2 0.26933101 4.400002 183 152 93
2.2 0.26738769 4.5000019 189 158 99
2.2 0.26763761 4.6000018 192 156 100
2.2 0.2689161 4.7000031 189 156 99
2.1999991 0.26759651 4.8000031 189 158 99
2.1999991 0.26837561 4.900002 192 158 100
2.1999991 0.2642107 5.0000019 189 158 99
2.1999991 0.2596063 5.1000018 189 158 100
2.1999991 0.25945419 5.2000031 189 154 99
2.1999991 0.25024909 5.3000021 192 158 100
2.1999991 0.2463682 5.400002 189 158 99
2.1999991 0.2391398 5.5000019 189 158 99
2.1999991 0.24253079 5.6000028 192 158 100
2.1999991 0.24058589 5.7000031 189 158 99
2.1999991 0.21935309 5.8000021 189 158 99
2.1999991 0.21914659 5.900002 189 158 100
2.1999991 0.21626119 6.0000029 189 158 99
2.1999991 0.2224977 6.1000009 189 158 99
2.1999991 0.22989839 6.2000031 192 158 100
2.1999991 0.21989471 6.3000021 195 158 103
2.1999991 0.2307796 6.400002 186 158 96
2.1999991 0.2178012 6.5000029 189 156 99
2.1999991 0.2291871 6.6000028 189 156 99
2.1999991 0.2290066 6.7000031 189 156 99
2.3000021 0.33069411 -7.1000009 192 158 99
2.3000021 0.31182161 -7.000001 192 158 100
2.3000021 0.324898 -6.900002 192 156 100
2.3000021 0.31670591 -6.8000011 189 155 99
2.3000021 0.29810679 -6.7000008 189 154 99
2.3000021 0.311726 -6.6000009 186 158 100
2.3000021 0.30272549 -6.500001 189 158 99
2.3000021 0.30087891 -6.400002 192 161 103
2.3000021 0.29680231 -6.3000011 189 158 99
2.3000021 0.29449159 -6.2000008 189 156 100
2.3000021 0.2974858 -6.1000009 195 163 103
2.3000021 0.3065719 -6.000001 195 163 103
2.3000021 0.3051239 -5.900001 186 155 96
2.3000021 0.30658019 -5.8000011 192 158 100
2.3000021 0.3101843 -5.7000008 192 160 100
2.3000021 0.3203848 -5.6000009 189 156 99
2.3000021 0.3117682 -5.5 192 158 100
2.3000021 0.31227779 -5.400001 192 158 100
2.3000021 0.31387061 -5.3000011 195 163 103
2.3000021 0.32221171 -5.2000008 189 158 99
2.3000021 0.33195841 -5.1000009 192 158 100
2.3000021 0.33381361 -5.000001 192 158 100
2.3000021 0.33368549 -4.900001 192 156 100
2.3000021 0.32406729 -4.8000011 192 158 100
2.3000021 0.32998011 -4.7000008 189 158 99
2.3000021 0.33666071 -4.5999999 186 158 100
2.3000021 0.32903439 -4.5 189 161 99
2.3000021 0.33914551 -4.4000001 192 158 100
2.3000021 0.3382574 -4.3000011 189 158 99
2.3000021 0.3376022 -4.1999998 189 158 99
2.3000021 0.34153071 -4.0999999 192 158 100
2.3000021 0.3434425 -4.000001 189 158 99
2.3000021 0.3393853 -3.900001 189 158 99
2.3000021 0.34265679 -3.8000009 189 154 99
2.3000021 0.34887439 -3.700001 192 160 100
2.3000021 0.36852831 -3.5999999 189 156 100
2.3000021 0.36389399 -3.5 192 156 100
2.3000021 0.39730549 -3.400001 106 110 106
2.3000021 0.4053134 -3.3 119 118 115
2.3000021 0.37823999 -3.200001 186 155 96
2.3000009 0.38986591 -3.0999999 189 158 100
2.3000009 0.38697749 -3 189 158 99
2.3000009 0.3846783 -2.9000001 189 158 99
2.3000009 0.3949644 -2.8 192 158 100
2.3000009 0.39927879 -2.7 189 154 99
2.3000009 0.39810911 -2.5999999 189 158 99
2.3000009 0.40613961 -2.5 189 158 99
2.3000009 0.41779709 -2.4000001 189 158 99
2.3000009 0.40045199 -2.3 189 158 99
2.3000009 0.411522 -2.2 192 158 100
2.3000009 0.41319081 -2.0999999 189 158 99
2.3000009 0.42012069 -2 189 156 99
2.3000009 0.42231619 -1.9 189 158 99
2.3000009 0.4196915 -1.8 189 158 99
2.3000009 0.41087699 -1.7 189 158 99
2.3000009 0.42952561 -1.6 189 158 99
2.3000009 0.42644301 -1.5 189 158 100
2.3000009 0.42179379 -1.4 189 158 99
2.3000009 0.43328199 -1.3 189 158 99
2.3000009 0.45120841 -1.2 131 132 131
2.3000009 0.44105989 -1.1 180 154 99
2.3000009 0.4475776 -0.99999958 122 122 125
2.3000009 0.44609389 -0.89999962 137 139 139
2.3000009 0.439356 -0.79999959 156 139 100
2.3000009 0.43721271 -0.69999957 189 158 99
2.3000009 0.43927699 -0.59999961 189 154 99
2.3000009 0.43406659 -0.49999961 189 158 106
2.3000009 0.44565541 -0.3999995 122 125 115
2.3000009 0.45631161 -0.29999951 189 154 99
2.3 0.45766479 -0.1999995 189 158 99
2.3 0.4521381 -0.099999443 192 156 100
2.3000009 0.45998979 5.8114529e-07 183 155 100
2.3000009 0.46942419 0.1000006 156 154 148
2.3 0.45841771 0.2000006 170 151 116
2.3000009 0.48275709 0.3000007 121 115 115
2.3000009 0.48605859 0.40000069 119 125 128
2.3000009 0.4869782 0.50000072 115 116 122
2.3000009 0.4578563 0.60000068 183 155 103
2.3 0.45905411 0.70000082 189 161 106
2.3 0.44438341 0.90000081 192 158 100
2.3 0.44807389 1.000001 192 158 100
2.3 0.44860631 1.100001 189 158 99
2.3 0.46059379 1.200001 192 158 100
2.3 0.4587515 1.300001 189 158 99
2.3 0.45686001 1.400001 189 158 100
2.3 0.44762051 1.500001 189 158 99
2.3 0.454007 1.600001 189 158 99
2.3 0.44899991 1.700001 192 158 100
2.3 0.44288009 1.800001 189 158 100
2.3 0.43106779 1.900001 189 158 99
2.3 0.41981739 2.000001 189 156 99
2.3 0.42810309 2.1000011 192 158 100
2.3 0.4190478 2.200001 189 158 99
2.3 0.41293421 2.3000009 189 158 99
2.3 0.41164729 2.400001 189 158 99
2.3 0.41196021 2.500001 189 158 99
2.3 0.39088199 2.6000011 189 156 99
2.3 0.38700789 2.700001 189 158 100
2.3 0.37812549 2.8000009 189 158 99
2.3 0.37008461 2.900002 189 158 99
2.3 0.36071539 3.000001 189 158 99
2.3 0.35400721 3.1000021 192 158 100
2.3 0.3423852 3.200001 189 156 99
2.3 0.32931751 3.3000021 189 158 100
2.3 0.31760719 3.400002 189 158 99
2.299999 0.32229781 3.5000019 192 158 100
2.3 0.32033521 3.6000021 192 158 100
2.3 0.32076791 3.700002 189 158 99
2.3 0.30661699 3.8000021 189 155 99
2.3 0.29799089 3.900002 189 158 99
2.299999 0.28676939 4.0000019 189 158 99
2.299999 0.28178149 4.1000018 189 158 99
2.299999 0.278954 4.2000031 189 158 100
2.3 0.2801601 4.3000031 189 155 99
2.3 0.2720035 4.400002 192 158 100
2.299999 0.26840591 4.5000019 192 158 100
2.299999 0.27273649 4.6000018 192 158 100
2.299999 0.26866439 4.7000031 192 158 100
2.299999 0.26654321 4.8000031 192 158 100
2.299999 0.26465499 4.900002 189 158 100
2.299999 0.26217771 5.0000019 189 158 99
2.299999 0.25587621 5.1000018 192 158 100
2.299999 0.25535631 5.2000031 189 158 99
2.299999 0.24829771 5.3000021 189 158 99
2.299999 0.2455629 5.400002 192 158 100
2.299999 0.2499944 5.5000019 186 155 96
2.299999 0.24426401 5.6000028 192 156 100
2.299999 0.2395267 5.7000031 192 156 100
2.299999 0.2373174 5.8000021 189 156 100
2.299999 0.2271307 5.900002 192 158 100
2.299999 0.2217824 6.0000029 189 154 99
2.299999 0.2194235 6.1000028 189 158 99
2.299999 0.2216628 6.2000031 192 160 100
2.299999 0.2266442 6.3000031 195 163 106
2.299999 0.24032509 6.400002 214 185 137
2.299999 0.242257 6.5000029 214 185 137
2.299999 0.2316321 6.6000028 214 185 137
2.299999 0.2273659 6.7000031 214 185 137
2.400002 0.32607409 -7.1000009 189 158 99
2.400002 0.32295811 -7.000001 195 160 103
2.400002 0.31846389 -6.900002 192 158 100
2.400002 0.31433499 -6.8000011 189 158 99
2.400002 0.31519869 -6.7000008 189 158 99
2.400002 0.31310299 -6.6000009 192 158 99
2.400002 0.30475971 -6.5000019 189 154 99
2.400002 0.29569489 -6.400002 192 156 100
2.400002 0.29679471 -6.3000011 192 158 100
2.400002 0.2937164 -6.2000008 189 158 99
2.400002 0.2937566 -6.1000009 192 158 100
2.400002 0.2957603 -6.000001 186 155 96
2.400002 0.30700231 -5.900001 189 161 106
2.400002 0.3047784 -5.8000011 189 158 100
2.400002 0.30976561 -5.7000008 189 158 100
2.400002 0.31577319 -5.6000009 189 156 99
2.400002 0.30282581 -5.5 192 158 100
2.400002 0.3169035 -5.400001 192 156 100
2.400002 0.3238664 -5.3000011 189 156 99
2.400002 0.29785541 -5.2000008 192 158 100
2.400002 0.32745111 -5.1000009 189 155 99
2.400002 0.32266429 -5.000001 192 158 100
2.400002 0.3202273 -4.900001 189 158 99
2.400002 0.3269271 -4.8000011 189 158 99
2.400002 0.33673969 -4.7000008 189 158 100
2.400002 0.32984409 -4.5999999 189 156 100
2.400002 0.31923521 -4.5 189 158 99
2.400002 0.32920599 -4.400001 189 158 99
2.400002 0.34095591 -4.3000011 189 158 99
2.400002 0.33474669 -4.1999998 189 158 99
2.400002 0.33808219 -4.0999999 189 158 99
2.400002 0.34827179 -4 189 158 99
2.400002 0.32428569 -3.900001 189 156 100
2.400002 0.34497699 -3.8000009 192 158 100
2.400002 0.343458 -3.700001 186 155 96
2.400002 0.3482776 -3.5999999 192 160 100
2.400002 0.36157721 -3.5 189 158 99
2.400002 0.3989957 -3.400001 132 134 132
2.400002 0.40644509 -3.3 118 122 121
2.400002 0.3867428 -3.200001 192 158 100
2.400002 0.3856411 -3.0999999 189 156 99
2.400002 0.3880747 -3 192 160 100
2.400002 0.4024187 -2.9000001 189 158 99
2.400002 0.4086886 -2.8 192 160 100
2.400002 0.41021591 -2.7 189 158 99
2.400002 0.40884009 -2.5999999 195 160 103
2.400002 0.3851777 -2.5 189 158 99
2.400002 0.4181591 -2.4000001 186 156 103
2.400002 0.4253445 -2.3 106 105 106
2.400002 0.42915559 -2.2 139 138 132
2.400002 0.4307009 -2.0999999 148 142 139
2.400002 0.41816601 -2 192 158 100
2.400002 0.43484789 -1.9 192 158 100
2.400001 0.43685591 -1.8 186 155 96
2.400002 0.43622649 -1.7 192 156 100
2.400002 0.4186188 -1.6 189 158 99
2.400002 0.4184342 -1.5 189 156 100
2.400001 0.43475619 -1.4 189 158 99
2.400002 0.4404605 -1.3 156 142 122
2.400001 0.45144141 -1.2 148 142 139
2.400001 0.44111401 -1.1 189 160 103
2.400001 0.43737659 -0.99999958 189 155 100
2.400001 0.44201249 -0.89999962 189 158 99
2.400001 0.4356389 -0.79999948 192 158 100
2.400001 0.4396013 -0.69999957 189 158 99
2.400001 0.43832529 -0.59999949 189 158 100
2.400001 0.44041571 -0.49999961 189 158 99
2.400001 0.44938061 -0.3999995 189 158 99
2.400001 0.46083739 -0.29999951 192 156 100
2.400001 0.45414761 -0.1999995 192 158 100
2.400001 0.46016601 -0.09999942 189 158 99
2.400001 0.4562729 6.1094761e-07 183 156 100
2.400001 0.45649919 0.1000007 180 154 106
2.400001 0.45036179 0.2000007 186 155 99
2.400001 0.46616301 0.30000079 172 151 112
2.400001 0.47400761 0.40000069 122 124 122
2.400001 0.47573081 0.50000072 156 150 139
2.400001 0.4580307 0.60000068 189 158 99
2.400001 0.45527181 0.70000082 192 158 100
2.400001 0.45469859 0.80000079 189 158 99
2.400001 0.45409989 0.90000087 189 155 99
2.400001 0.45683399 1.000001 192 158 100
2.400001 0.45313969 1.100001 189 158 100
2.400001 0.45797089 1.200001 189 156 100
2.400001 0.44953471 1.300001 189 158 97
2.400001 0.45445991 1.400001 192 158 100
2.400001 0.4511044 1.500001 189 158 99
2.400001 0.4454917 1.600001 189 158 99
2.400001 0.4306691 1.700001 189 156 99
2.400001 0.43379551 1.800001 189 158 99
2.400001 0.42185271 1.900001 189 158 99
2.400001 0.41661331 2.000001 192 158 100
2.4000001 0.41708499 2.1000011 189 158 99
2.4000001 0.42566499 2.200001 189 154 99
2.4000001 0.41036019 2.3000009 195 160 103
2.400001 0.40824449 2.400001 192 158 100
2.400001 0.40323409 2.500001 192 158 100
2.4000001 0.4030942 2.6000011 195 160 103
2.400001 0.38437679 2.700001 189 158 100
2.4000001 0.37634209 2.8000009 192 156 100
2.4000001 0.3768509 2.900002 189 158 99
2.4000001 0.3762953 3.000001 189 154 99
2.4000001 0.3544302 3.1000021 189 158 99
2.4000001 0.3412047 3.200002 189 158 99
2.4000001 0.32637221 3.3000021 189 154 99
2.4000001 0.3184253 3.400002 195 160 103
2.4000001 0.31892771 3.5000019 189 154 99
2.4000001 0.31613049 3.6000021 189 158 99
2.4000001 0.3118144 3.700002 189 158 99
2.4000001 0.30434319 3.8000009 189 158 100
2.4000001 0.298576 3.900002 192 158 100
2.4000001 0.29158869 4.0000019 189 156 99
2.4000001 0.28586 4.1000018 189 158 99
2.4000001 0.286744 4.2000031 189 158 99
2.4000001 0.2841368 4.3000031 186 155 96
2.4000001 0.28188819 4.400002 195 158 103
2.4000001 0.2685774 4.5000019 189 158 99
2.4000001 0.27131611 4.6000018 192 158 100
2.4000001 0.270228 4.7000031 186 155 96
2.3999989 0.2686857 4.8000031 189 154 99
2.3999989 0.2651113 4.900002 192 158 100
2.3999989 0.26339781 5.0000019 189 158 99
2.4000001 0.26061201 5.1000018 192 158 100
2.3999989 0.2552011 5.2000031 186 158 103
2.3999989 0.2474076 5.3000021 189 158 100
2.4000001 0.2426277 5.400002 189 158 99
2.4000001 0.23925281 5.5000019 192 158 100
2.3999989 0.2458165 5.6000028 189 155 99
2.3999989 0.2458027 5.7000031 189 158 99
2.3999989 0.2350564 5.8000021 192 156 100
2.3999989 0.22703689 5.900002 192 158 100
2.3999989 0.2296423 6.0000029 186 156 99
2.3999989 0.2311261 6.1000028 189 158 100
2.3999989 0.22649311 6.2000022 189 158 99
2.3999989 0.233669 6.3000031 214 188 145
2.3999989 0.24085739 6.400002 214 190 148
2.3999989 0.2418074 6.5000029 214 183 139
2.3999989 0.23486809 6.6000028 214 183 139
2.3999989 0.22990739 6.7000031 214 183 139
2.5000019 0.32667631 -7.1000009 189 158 99
2.5000019 0.3267915 -7.000001 192 160 100
2.5000019 0.31320891 -6.900002 183 156 100
2.5000019 0.3169204 -6.8000011 189 158 100
2.5000019 0.3102605 -6.7000008 189 156 99
2.5000019 0.30471951 -6.6000009 189 155 99
2.5000019 0.3075684 -6.500001 186 156 100
2.5000019 0.3041456 -6.400002 189 154 99
2.5000019 0.29705861 -6.3000011 192 158 100
2.5000019 0.2991716 -6.2000008 192 160 100
2.5000019 0.3124381 -6.1000009 186 155 96
2.5000019 0.3098776 -6.000001 189 158 99
2.5000019 0.3016091 -5.900001 192 156 100
2.5000019 0.31214851 -5.8000011 195 160 103
2.5000019 0.30772129 -5.7000008 192 158 100
2.5000019 0.3113879 -5.6000009 189 158 99
2.5000019 0.31419691 -5.5 189 158 99
2.5000019 0.3249203 -5.400001 195 158 103
2.5000019 0.31521571 -5.3000011 192 158 100
2.5000019 0.31538901 -5.1999998 189 158 100
2.5000019 0.31899101 -5.1000009 192 158 100
2.5000019 0.32166111 -5.000001 189 158 99
2.5000019 0.32574981 -4.900001 192 158 100
2.5000019 0.32642761 -4.8000011 192 158 99
2.5000019 0.3309322 -4.7000008 192 158 100
2.5000019 0.32233021 -4.5999999 189 158 99
2.5000019 0.33294499 -4.5 189 158 99
2.5000019 0.32964951 -4.4000001 192 158 100
2.5000019 0.33401731 -4.3000011 192 160 100
2.5000019 0.34509239 -4.1999998 192 158 100
2.5000019 0.33193159 -4.0999999 189 158 99
2.5000019 0.3350018 -4 192 158 100
2.5000019 0.3403385 -3.900001 189 158 99
2.5000019 0.34254739 -3.8000009 192 158 100
2.5000019 0.34431201 -3.700001 189 158 99
2.5000019 0.35689801 -3.5999999 189 158 99
2.500001 0.366344 -3.500001 189 156 100
2.500001 0.3791132 -3.4000001 183 156 100
2.5000019 0.38866279 -3.3000009 189 158 99
2.500001 0.3771075 -3.200001 192 158 100
2.5000019 0.3844828 -3.1000011 180 154 99
2.500001 0.39102119 -3 192 158 100
2.500001 0.39931661 -2.9000001 180 158 122
2.5000019 0.41285309 -2.8 195 160 103
2.500001 0.41711161 -2.7 189 155 99
2.500001 0.41648331 -2.5999999 195 160 103
2.500001 0.4082095 -2.5 192 158 100
2.500001 0.4216997 -2.4000001 170 145 109
2.500001 0.43196669 -2.3 106 109 115
2.500001 0.4357852 -2.2 110 113 122
2.5000019 0.43702939 -2.0999999 128 132 122
2.500001 0.42364609 -2 189 158 99
2.500001 0.43249819 -1.9 192 156 100
2.500001 0.43973589 -1.8 189 154 99
2.500001 0.43827191 -1.7 189 158 99
2.500001 0.43453509 -1.6 186 156 99
2.500001 0.4274371 -1.5 189 156 99
2.500001 0.430199 -1.4 189 158 99
2.500001 0.44636631 -1.3 153 134 110
2.500001 0.4347353 -1.2 189 158 97
2.500001 0.44821391 -1.1 189 158 100
2.500001 0.46752039 -0.99999958 137 139 142
2.500001 0.46348089 -0.89999962 115 116 122
2.500001 0.4610292 -0.79999959 134 134 137
2.500001 0.43743521 -0.69999957 189 158 100
2.500001 0.4464612 -0.59999949 189 155 99
2.5 0.45009559 -0.49999949 180 154 106
2.500001 0.4362452 -0.3999995 192 158 100
2.5 0.4483102 -0.29999951 192 158 100
2.500001 0.45117101 -0.19999941 192 158 100
2.500001 0.44748789 -0.099999391 192 158 100
2.500001 0.46430221 6.2584883e-07 164 166 173
2.5 0.46476391 0.1000007 129 134 142
2.500001 0.4528845 0.2000007 183 158 100
2.500001 0.45492381 0.3000007 119 122 119
2.500001 0.45586181 0.40000081 189 158 99
2.500001 0.45962691 0.50000077 189 156 99
2.500001 0.4615556 0.60000068 189 158 100
2.5 0.45115551 0.70000082 192 156 100
2.5 0.45366281 0.80000103 189 158 99
2.5 0.46150979 0.90000099 189 156 99
2.5 0.4564001 1.000001 189 158 99
2.5 0.45664629 1.100001 192 158 100
2.5 0.4598681 1.200001 189 156 103
2.5 0.45225501 1.300001 189 154 99
2.5 0.45812631 1.400001 189 158 100
2.5 0.45049539 1.500001 189 158 99
2.5 0.44509041 1.600001 192 158 99
2.5 0.4315767 1.700001 192 158 100
2.5 0.43069419 1.800001 189 158 99
2.5 0.42576051 1.900001 189 158 99
2.5 0.4197613 2.000001 192 156 100
2.5 0.41757569 2.1000011 193 161 103
2.5 0.4065049 2.200001 189 158 99
2.5 0.4129647 2.3000009 189 158 99
2.5 0.41508371 2.400001 193 160 103
2.5 0.40609309 2.500001 189 156 99
2.5 0.39300689 2.6000011 195 160 103
2.5 0.3989571 2.700001 189 158 100
2.5 0.38704199 2.8000009 189 158 99
2.5 0.37394741 2.900002 189 158 99
2.5 0.3611955 3.000001 183 156 100
2.5 0.34955019 3.1000011 189 158 99
2.5 0.34359771 3.200001 189 158 100
2.5 0.33656701 3.3000021 189 158 99
2.5 0.3211638 3.400002 189 156 99
2.5 0.3201513 3.5000019 189 156 99
2.5 0.31663981 3.6000011 192 158 100
2.5 0.31264001 3.700002 189 158 99
2.5 0.30996731 3.8000021 192 158 100
2.5 0.30104241 3.900002 192 158 99
2.5 0.29927471 4.0000019 189 158 99
2.5 0.28352141 4.1000018 192 158 100
2.5 0.28301179 4.2000031 192 158 99
2.5 0.28585339 4.3000031 192 158 100
2.5 0.28426129 4.400002 192 158 100
2.5 0.27925801 4.5000019 192 160 100
2.5 0.27483031 4.6000028 189 158 99
2.5 0.2711156 4.7000031 192 158 100
2.5 0.26948661 4.8000031 195 160 103
2.5 0.28150609 4.900002 189 158 99
2.5 0.26125541 5.0000019 189 156 99
2.5 0.25213811 5.1000018 189 155 99
2.5 0.25359431 5.2000031 192 158 100
2.5 0.25509429 5.3000021 189 158 100
2.5 0.2525329 5.400002 189 158 100
2.5 0.2460133 5.5000019 189 158 100
2.5 0.2422321 5.6000028 192 158 100
2.5 0.2403398 5.7000031 189 158 99
2.5 0.2398479 5.8000021 192 158 100
2.5 0.23481821 5.900002 192 158 100
2.5 0.230757 6.0000029 189 156 99
2.5 0.22085769 6.1000028 189 156 99
2.5 0.2219975 6.2000031 189 158 99
2.5 0.23183779 6.3000031 236 209 175
2.5 0.23347589 6.400002 239 215 180
2.499999 0.229311 6.5000029 239 215 180
2.5 0.2251662 6.6000028 239 215 180
2.5 0.2253612 6.7000031 239 215 180
2.6000021 0.33224201 -7.1000009 195 163 103
2.6000021 0.32233721 -7 189 158 99
2.6000021 0.32363379 -6.900002 186 156 100
2.6000021 0.30335599 -6.8000011 189 158 99
2.6000021 0.31844711 -6.6999998 186 158 103
2.6000021 0.30159211 -6.6000009 186 156 100
2.6000021 0.30582201 -6.5 189 154 99
2.6000021 0.30686441 -6.400001 192 158 100
2.6000021 0.30343559 -6.3000011 189 158 99
2.6000021 0.29682121 -6.2000008 189 158 99
2.6000021 0.2972064 -6.099999 192 158 100
2.6000021 0.3065767 -6 183 154 94
2.6000021 0.3066121 -5.9000001 189 158 99
2.6000021 0.31796351 -5.8000011 189 158 99
2.6000021 0.31141561 -5.6999989 189 158 99
2.6000021 0.30950469 -5.5999999 192 158 100
2.6000021 0.30389121 -5.5 186 155 96
2.6000021 0.3170667 -5.4000001 192 158 100
2.6000021 0.3251121 -5.3000002 189 155 99
2.6000021 0.31750289 -5.1999998 186 158 100
2.6000021 0.3188203 -5.1000009 189 158 99
2.6000021 0.31912389 -5.000001 183 156 100
2.6000021 0.32184479 -4.900001 189 154 99
2.6000021 0.32965729 -4.8000011 189 155 99
2.6000021 0.32817379 -4.7000008 192 158 100
2.6000021 0.3373577 -4.5999999 192 158 100
2.6000021 0.32488301 -4.5 192 158 100
2.6000021 0.32062691 -4.4000001 189 158 99
2.6000021 0.32078031 -4.3000011 180 154 90
2.6000021 0.3385717 -4.1999998 189 156 99
2.6000021 0.33835351 -4.0999999 192 158 100
2.6000021 0.34270909 -4 189 154 99
2.6000021 0.3448818 -3.900001 189 158 99
2.6000021 0.3371214 -3.8000009 189 156 99
2.6000021 0.34638229 -3.700001 183 154 94
2.6000021 0.34641859 -3.5999999 189 158 99
2.6000011 0.36136001 -3.5 189 155 99
2.6000011 0.36745861 -3.400001 192 160 100
2.6000011 0.37526441 -3.3000009 189 161 106
2.6000011 0.37825409 -3.2 189 158 99
2.6000011 0.38131511 -3.1000011 189 156 99
2.6000011 0.41611931 -3 115 116 122
2.6000011 0.40814421 -2.9000001 115 119 122
2.6000011 0.3986482 -2.8 195 160 103
2.6000011 0.40837109 -2.7 186 155 96
2.6000011 0.3972418 -2.6000011 189 154 99
2.6000011 0.40624699 -2.5 189 158 99
2.6000011 0.4051359 -2.4000001 192 158 100
2.6000011 0.4247874 -2.3 164 142 116
2.6000011 0.42953071 -2.2 173 150 106
2.6000011 0.41960469 -2.0999999 189 158 99
2.6000011 0.42827201 -2 189 158 99
2.6000011 0.4407334 -1.9 189 158 99
2.6000011 0.43554711 -1.8 192 158 100
2.6000011 0.43812069 -1.7 189 154 99
2.6000011 0.43719581 -1.6 183 155 100
2.6000011 0.43404931 -1.5 192 158 100
2.6000011 0.4352918 -1.4 189 161 106
2.6000011 0.4548122 -1.3 115 121 122
2.5999999 0.4579072 -1.2 148 134 115
2.6000011 0.46222949 -1.1 186 156 99
2.6000011 0.47267789 -0.99999958 164 145 103
2.5999999 0.45932621 -0.89999962 183 156 100
2.6000011 0.44795799 -0.79999971 189 158 99
2.5999999 0.45490089 -0.69999957 192 158 100
2.6000011 0.45847791 -0.59999949 99 97 106
2.5999999 0.4629072 -0.49999949 122 124 119
2.6000011 0.45392889 -0.39999941 164 150 115
2.6000011 0.46953231 -0.29999939 189 158 99
2.5999999 0.45422861 -0.19999941 189 155 99
2.5999999 0.45165351 -0.099999383 189 155 99
2.5999999 0.46517429 6.7055231e-07 134 125 115
2.5999999 0.4640435 0.1000007 106 109 115
2.6000011 0.45806471 0.2000007 164 150 115
2.5999999 0.46195799 0.3000007 122 129 131
2.6000011 0.4489066 0.40000081 189 158 99
2.5999999 0.46478751 0.50000077 192 158 100
2.5999999 0.46399599 0.60000068 192 156 100
2.6000011 0.44868499 0.70000082 189 154 99
2.5999999 0.45917141 0.80000103 189 154 99
2.5999999 0.4559786 0.90000099 192 156 100
2.5999999 0.4540956 1.000001 170 147 112
2.5999999 0.48576531 1.100001 122 128 131
2.5999999 0.48323619 1.200001 148 155 158
2.5999999 0.4540596 1.300001 189 156 100
2.5999999 0.46378931 1.400001 189 154 99
2.5999999 0.44626111 1.500001 189 158 100
2.5999999 0.44236279 1.600001 189 158 99
2.5999999 0.43013549 1.700001 189 158 99
2.5999999 0.42741081 1.800001 205 174 122
2.5999999 0.41912219 1.900001 186 155 96
2.5999999 0.4152033 2.000001 189 158 100
2.5999999 0.41394541 2.1000011 189 158 99
2.5999999 0.42887881 2.200001 189 158 99
2.5999999 0.41152099 2.3000009 192 156 100
2.5999999 0.40601629 2.400001 189 158 100
2.5999999 0.40180141 2.500001 192 158 99
2.5999999 0.39721391 2.6000011 189 158 99
2.5999999 0.39182469 2.700002 189 158 100
2.5999999 0.3936716 2.8000009 192 158 100
2.5999999 0.3616901 2.900002 189 156 100
2.5999999 0.36865541 3.000001 189 158 99
2.5999999 0.35210499 3.1000021 189 158 99
2.5999999 0.34126541 3.200001 189 158 99
2.5999999 0.3410933 3.3000021 189 156 99
2.5999999 0.333884 3.400002 192 158 100
2.5999999 0.32943189 3.500001 189 158 99
2.5999999 0.3261705 3.6000011 189 158 99
2.5999999 0.31372419 3.700001 189 158 100
2.5999999 0.309407 3.8000021 189 154 99
2.5999999 0.30445689 3.900002 189 158 99
2.5999999 0.30121931 4.0000019 192 156 100
2.599999 0.29620001 4.1000018 192 158 99
2.599999 0.291504 4.2000031 189 158 100
2.5999999 0.2912657 4.3000031 189 156 99
2.599999 0.2885741 4.400002 192 158 100
2.5999999 0.2845524 4.5000019 189 158 99
2.599999 0.27973309 4.6000018 189 158 99
2.599999 0.27832869 4.7000031 192 158 100
2.599999 0.2753301 4.8000031 189 158 99
2.5999999 0.26016521 4.900002 189 156 99
2.5999999 0.25326559 5.0000019 189 158 100
2.5999999 0.2526716 5.1000018 192 158 100
2.5999999 0.25408679 5.2000031 192 158 100
2.5999999 0.25735229 5.3000031 192 160 100
2.599999 0.2486797 5.400003 189 154 99
2.5999999 0.25058341 5.5000029 189 158 99
2.599999 0.24634629 5.6000028 189 154 99
2.5999999 0.23701461 5.7000031 189 158 99
2.5999999 0.2389902 5.8000031 189 158 99
2.5999999 0.22828551 5.900003 189 158 100
2.5999999 0.2321485 6.0000029 189 158 99
2.5999999 0.23063751 6.1000028 189 158 99
2.599999 0.22224469 6.2000031 189 155 99
2.5999999 0.2178475 6.300004 211 186 142
2.5999999 0.2234744 6.400003 221 194 154
2.599999 0.23104849 6.5000029 221 194 154
2.599999 0.233667 6.6000028 221 194 154
2.599999 0.2254726 6.7000031 221 194 154
2.700002 0.33073461 -7.1000009 189 158 99
2.700002 0.31981549 -7 189 158 99
2.700002 0.317577 -6.900001 195 163 103
2.700002 0.31865671 -6.8000011 192 156 100
2.700002 0.31934229 -6.7000008 186 158 100
2.700002 0.32183871 -6.6000009 192 156 100
2.700002 0.32088709 -6.500001 192 161 103
2.700002 0.30572841 -6.4000001 189 158 99
2.700002 0.30478671 -6.3000011 192 158 100
2.700002 0.30566141 -6.2000008 189 158 99
2.700002 0.3070901 -6.1000009 189 158 99
2.700002 0.3181434 -6 195 158 103
2.700002 0.29594609 -5.9000001 189 158 99
2.700002 0.30293709 -5.8000011 183 154 94
2.700002 0.30616921 -5.6999989 189 158 99
2.700002 0.31271589 -5.5999999 189 154 99
2.700002 0.32426679 -5.5 189 154 99
2.700002 0.30883771 -5.4000001 192 158 100
2.700002 0.31477219 -5.3000002 192 158 100
2.700002 0.31399921 -5.1999998 189 158 99
2.700002 0.3127397 -5.1000009 189 154 99
2.700002 0.3268013 -5.000001 195 158 103
2.700002 0.32763371 -4.900001 183 156 100
2.700002 0.32986969 -4.8000002 183 154 94
2.700002 0.31434321 -4.7000008 186 158 100
2.700002 0.33558089 -4.5999999 189 156 100
2.700002 0.3330864 -4.5 189 158 99
2.700002 0.33241141 -4.4000001 189 158 99
2.700002 0.33567169 -4.3000011 192 158 100
2.700002 0.3442086 -4.1999998 189 158 99
2.700002 0.3316426 -4.0999999 189 158 99
2.700002 0.3434512 -4 189 158 99
2.700002 0.3417924 -3.900001 189 158 99
2.700001 0.3473129 -3.8000009 189 161 99
2.700001 0.3556214 -3.700001 189 158 99
2.700001 0.3463923 -3.5999999 189 158 99
2.700001 0.35718659 -3.5 192 158 103
2.700001 0.36526859 -3.400001 195 163 103
2.700001 0.36278519 -3.3000009 189 158 99
2.700001 0.3773168 -3.2 189 158 99
2.700001 0.38796061 -3.0999999 189 158 99
2.700001 0.418616 -3 119 122 128
2.700001 0.3993839 -2.9000001 189 154 99
2.700001 0.41605449 -2.8 192 158 100
2.700001 0.41818261 -2.7 189 154 99
2.700001 0.41398221 -2.5999999 189 155 99
2.700001 0.42577371 -2.5 189 158 100
2.700001 0.40216869 -2.4000001 189 158 99
2.700001 0.41499469 -2.3 192 156 100
2.700001 0.42586711 -2.2 189 158 99
2.700001 0.43159321 -2.0999999 192 156 100
2.700001 0.43613389 -2 189 158 99
2.700001 0.45007181 -1.9 189 158 99
2.700001 0.44339439 -1.8 195 158 103
2.700001 0.4405027 -1.7 192 158 100
2.700001 0.45283511 -1.6 139 145 148
2.700001 0.4476915 -1.5 164 150 132
2.700001 0.4364444 -1.4 175 148 99
2.700001 0.45455599 -1.3 128 130 137
2.700001 0.45716101 -1.2 125 135 145
2.700001 0.45252451 -1.1 189 158 99
2.700001 0.46343681 -0.99999958 154 141 129
2.700001 0.4714925 -0.89999962 134 130 122
2.700001 0.44277981 -0.79999959 189 158 99
2.700001 0.4474211 -0.69999951 189 158 99
2.700001 0.44648251 -0.59999949 189 161 99
2.700001 0.45553121 -0.49999949 189 158 99
2.700001 0.4457857 -0.39999941 192 158 100
2.700001 0.45562679 -0.29999939 189 158 99
2.700001 0.44791451 -0.19999941 189 158 99
2.700001 0.45154881 -0.099999353 189 158 99
2.700001 0.46076921 6.8545341e-07 189 158 99
2.700001 0.46827 0.1000008 189 158 99
2.700001 0.45074159 0.2000007 180 150 99
2.700001 0.45141351 0.3000007 177 152 106
2.700001 0.44481349 0.40000081 189 158 99
2.700001 0.45241269 0.50000077 189 158 100
2.700001 0.456857 0.60000068 192 158 100
2.700001 0.45015341 0.70000082 189 158 99
2.7 0.4636074 0.80000103 189 158 99
2.700001 0.45844519 0.90000099 189 158 99
2.700001 0.49061051 1.000001 148 158 156
2.7 0.48648 1.100001 142 144 145
2.700001 0.4707737 1.200001 139 133 119
2.7 0.46310541 1.300001 189 156 100
2.7 0.448948 1.400001 192 158 100
2.7 0.44200501 1.500001 189 158 99
2.7 0.44211319 1.600001 189 154 99
2.7 0.43142301 1.700001 189 158 99
2.7 0.4220669 1.800001 189 158 99
2.7 0.42327979 1.900001 189 155 99
2.7 0.41527051 2.000001 189 158 99
2.7 0.40861809 2.1000011 189 158 99
2.7 0.41884959 2.200001 189 154 99
2.7 0.4116402 2.3000009 189 158 99
2.7 0.4026219 2.400001 192 156 100
2.7 0.387674 2.500001 189 158 99
2.7 0.3881619 2.6000011 189 154 99
2.7 0.39162049 2.700001 192 158 100
2.7 0.39066991 2.8000009 189 158 99
2.7 0.37314901 2.900002 189 158 99
2.7 0.35193101 3.000001 186 158 100
2.7 0.3654736 3.1000021 189 158 99
2.7 0.3518115 3.200001 195 158 103
2.7 0.3381274 3.3000021 189 158 103
2.7 0.33491081 3.400002 189 158 99
2.7 0.32927081 3.5000019 189 158 99
2.7 0.32546461 3.6000011 189 158 99
2.7 0.31510219 3.700001 189 158 99
2.7 0.30192769 3.8000009 189 158 100
2.7 0.31859601 3.900002 189 161 99
2.7 0.30059931 4.0000019 192 158 100
2.7 0.2977877 4.1000018 189 156 99
2.7 0.2953063 4.2000031 189 158 100
2.7 0.28811479 4.3000021 189 154 99
2.7 0.2824311 4.400002 192 158 100
2.7 0.275702 4.5000019 189 158 100
2.7 0.27491361 4.6000028 189 158 99
2.7 0.27553609 4.7000031 192 160 100
2.6999991 0.2691783 4.8000031 192 156 100
2.6999991 0.2594997 4.900002 192 158 100
2.6999991 0.25027531 5.0000019 192 160 100
2.6999991 0.25957489 5.1000018 189 158 99
2.6999991 0.26558909 5.2000031 189 158 100
2.6999991 0.26610941 5.3000021 192 158 100
2.6999991 0.2564621 5.400003 189 158 99
2.6999991 0.25845209 5.5000029 192 158 100
2.6999991 0.2427201 5.6000042 189 158 99
2.6999991 0.2479687 5.7000031 189 158 100
2.6999991 0.2384043 5.8000031 189 158 99
2.6999991 0.23821171 5.900003 189 154 99
2.6999991 0.2329599 6.0000029 189 156 100
2.6999991 0.2307854 6.1000028 192 156 100
2.6999991 0.230298 6.2000031 189 158 99
2.6999991 0.2125126 6.300004 192 164 109
2.6999991 0.2192923 6.400002 194 167 115
2.6999991 0.22690441 6.5000029 196 167 115
2.6999991 0.2308768 6.6000028 202 167 119
2.6999991 0.22351851 6.7000031 198 170 112
2.8000021 0.3245813 -7.1000009 189 155 99
2.8000021 0.31642839 -7 195 160 103
2.8000021 0.31399921 -6.9000001 189 158 99
2.8000021 0.30625969 -6.8000011 189 158 99
2.8000031 0.31583181 -6.7000008 189 158 99
2.8000021 0.30789959 -6.6000009 192 160 100
2.8000021 0.3045412 -6.5 192 160 100
2.8000021 0.29915711 -6.400001 189 158 100
2.8000021 0.29606041 -6.3000011 192 156 100
2.8000021 0.2987524 -6.2000008 192 158 100
2.8000021 0.31072709 -6.1000009 186 155 96
2.8000021 0.3231312 -6 186 156 100
2.8000021 0.327346 -5.9000001 189 158 100
2.8000021 0.316744 -5.8000011 189 158 99
2.8000021 0.30940431 -5.6999989 186 155 96
2.8000021 0.32110351 -5.5999999 195 158 103
2.8000021 0.32258329 -5.5 192 158 100
2.8000021 0.31879839 -5.4000001 189 158 99
2.8000021 0.31711259 -5.3000002 189 156 99
2.8000021 0.31336841 -5.1999998 198 166 106
2.8000021 0.31914961 -5.1000009 186 158 100
2.8000021 0.326608 -5.000001 189 161 99
2.8000021 0.32752869 -4.900001 186 158 100
2.8000021 0.32670969 -4.8000011 195 163 103
2.8000021 0.3306444 -4.7000008 192 158 100
2.8000021 0.3406651 -4.5999999 186 155 96
2.8000021 0.3342745 -4.5 189 158 99
2.8000021 0.32582089 -4.4000001 189 158 99
2.8000021 0.32730001 -4.3000011 192 158 103
2.8000021 0.33295399 -4.2000008 189 158 99
2.8000021 0.33450571 -4.0999999 186 154 94
2.8000021 0.33910659 -4.000001 189 158 99
2.8000021 0.32830521 -3.900001 189 156 99
2.8000021 0.35391241 -3.8000009 189 158 99
2.8000009 0.36094731 -3.700001 183 154 94
2.8000009 0.35654581 -3.5999999 189 158 100
2.8000009 0.3611145 -3.5 183 151 94
2.8000009 0.37013841 -3.4000001 192 156 96
2.8000009 0.38594139 -3.3 186 156 99
2.8000009 0.3801617 -3.200001 189 158 99
2.8000009 0.39031291 -3.0999999 189 156 99
2.8000009 0.41411331 -3 148 134 106
2.8000009 0.3980464 -2.9000001 189 161 106
2.8000009 0.41023621 -2.8 192 158 100
2.8000009 0.4098967 -2.7 189 158 100
2.8000009 0.41722709 -2.5999999 192 158 100
2.8000009 0.41284549 -2.5 192 158 100
2.8000009 0.41450679 -2.4000001 189 158 100
2.8000009 0.4238601 -2.3 189 158 99
2.8000009 0.42094901 -2.2 195 160 103
2.8000009 0.424481 -2.0999999 192 158 100
2.8000009 0.4370763 -2 192 158 100
2.8000009 0.45207039 -1.9 192 161 100
2.8000009 0.43607509 -1.8 189 158 99
2.8000009 0.43090999 -1.7 192 158 100
2.8000009 0.44104251 -1.6 183 154 106
2.8000009 0.44245189 -1.5 106 113 115
2.8000009 0.43955171 -1.4 189 154 99
2.8000009 0.44529 -1.3 189 158 99
2.8000009 0.45357901 -1.2 189 161 106
2.8000009 0.47115499 -1.1 148 135 112
2.8000009 0.4753713 -0.99999958 156 150 148
2.8000009 0.45945039 -0.89999962 192 158 100
2.8000009 0.4610509 -0.79999948 192 158 100
2.8000009 0.44779861 -0.69999951 189 158 99
2.8000009 0.44809079 -0.59999949 189 158 99
2.8000009 0.44787601 -0.49999949 192 158 100
2.8000009 0.47928059 -0.39999941 189 158 99
2.8000009 0.4551549 -0.29999939 189 158 99
2.8000009 0.4608022 -0.19999941 186 156 94
2.8000009 0.45864299 -0.099999323 189 161 106
2.8000009 0.45820749 6.8545341e-07 189 155 99
2.8000009 0.4755556 0.1000007 189 158 99
2.8000009 0.45608869 0.2000007 193 160 103
2.8000009 0.47070321 0.30000079 192 158 100
2.8000009 0.45404381 0.40000081 189 156 100
2.8000009 0.45817491 0.50000077 189 158 99
2.8000009 0.45898581 0.60000092 189 156 100
2.8000009 0.46034831 0.70000088 189 154 99
2.8 0.46504551 0.80000079 189 155 99
2.8 0.464398 0.90000099 192 158 100
2.8 0.49024421 1.000001 186 156 100
2.8 0.48883411 1.100001 167 147 106
2.8 0.46147639 1.200001 192 158 100
2.8 0.45192999 1.300001 189 158 99
2.8 0.4483875 1.400001 189 158 100
2.8 0.4422183 1.500001 189 161 106
2.8 0.43044749 1.600001 195 158 103
2.8 0.4378337 1.700001 202 172 119
2.8 0.4318364 1.800001 189 158 97
2.8 0.42244911 1.900001 189 158 97
2.8 0.42083031 2.000001 186 156 99
2.8 0.41287431 2.1000011 189 158 100
2.8 0.40755141 2.200001 189 158 99
2.8 0.40404299 2.3000021 195 163 103
2.8 0.39215881 2.400001 192 158 100
2.8 0.38095689 2.500001 189 158 99
2.8 0.39624429 2.6000011 192 158 100
2.8 0.39801201 2.700001 189 158 99
2.8 0.38482729 2.8000009 189 158 100
2.8 0.37168249 2.900002 189 158 99
2.8 0.35909891 3.000001 186 155 97
2.8 0.3608706 3.1000021 192 158 100
2.8 0.36629429 3.200001 195 160 103
2.8 0.3514843 3.3000021 192 158 100
2.8 0.34260291 3.400002 186 155 99
2.8 0.33305129 3.500001 195 163 103
2.8 0.3298443 3.6000011 189 158 99
2.8 0.31836009 3.700001 195 160 103
2.8 0.31986061 3.8000021 189 158 99
2.799999 0.32649031 3.900002 192 158 100
2.8 0.29603949 4.0000019 189 158 99
2.8 0.29879001 4.1000018 189 156 99
2.8 0.29606429 4.2000031 189 158 99
2.8 0.2867994 4.3000031 189 158 99
2.799999 0.28129831 4.400002 189 158 99
2.8 0.27494559 4.5000019 192 160 100
2.8 0.2688643 4.6000018 192 158 100
2.799999 0.26497379 4.7000031 189 158 100
2.799999 0.26410431 4.800004 183 156 100
2.799999 0.26011941 4.900002 189 155 99
2.799999 0.26007199 5.0000019 189 155 99
2.799999 0.26413909 5.1000018 186 155 96
2.799999 0.26601771 5.2000031 192 158 100
2.799999 0.2637243 5.3000031 192 158 100
2.799999 0.2886979 5.400003 192 158 100
2.799999 0.28209159 5.5000029 192 158 100
2.799999 0.24377561 5.6000028 189 158 99
2.799999 0.25369999 5.7000031 192 156 100
2.799999 0.2420966 5.8000031 192 160 100
